884
6.3628997803 2.0673999786 5.0000000000 
7.6852002144 0.0000000000 5.0000000000 
7.3090000153 2.3747999668 5.0000000000 
6.6904001236 0.0000000000 5.0000000000 
8.6828002930 0.0000000000 5.0000000000 
8.2578001022 2.6830999851 5.0000000000 
9.6824998856 0.0000000000 5.0000000000 
9.2086000443 2.9920001030 5.0000000000 
5.4126000404 3.9324998856 5.0000000000 
6.2174000740 4.5171999931 5.0000000000 
7.0244998932 5.1036000252 5.0000000000 
7.8333001137 5.6911997795 5.0000000000 
3.9324998856 5.4126000404 5.0000000000 
4.5171999931 6.2174000740 5.0000000000 
5.1036000252 7.0244998932 5.0000000000 
5.6911997795 7.8333001137 5.0000000000 
2.0673999786 6.3628997803 5.0000000000 
2.3747999668 7.3090000153 5.0000000000 
2.6830999851 8.2578001022 5.0000000000 
2.9920001030 9.2086000443 5.0000000000 
0.0000000000 6.6904001236 5.0000000000 
0.0000000000 7.6852002144 5.0000000000 
0.0000000000 8.6828002930 5.0000000000 
0.0000000000 9.6824998856 5.0000000000 
-2.3747999668 7.3090000153 5.0000000000 
-2.0673999786 6.3628997803 5.0000000000 
-2.6830999851 8.2578001022 5.0000000000 
-2.9920001030 9.2086000443 5.0000000000 
-4.5171999931 6.2174000740 5.0000000000 
-3.9324998856 5.4126000404 5.0000000000 
-5.1036000252 7.0244998932 5.0000000000 
-5.6911997795 7.8333001137 5.0000000000 
-5.4126000404 3.9324998856 5.0000000000 
-6.2174000740 4.5171999931 5.0000000000 
-7.0244998932 5.1036000252 5.0000000000 
-7.8333001137 5.6911997795 5.0000000000 
-6.3628997803 2.0673999786 5.0000000000 
-7.3090000153 2.3747999668 5.0000000000 
-8.2578001022 2.6830999851 5.0000000000 
-9.2086000443 2.9920001030 5.0000000000 
-7.6852002144 0.0000000000 5.0000000000 
-6.6904001236 0.0000000000 5.0000000000 
-8.6828002930 0.0000000000 5.0000000000 
-9.6824998856 0.0000000000 5.0000000000 
-6.3628997803 -2.0673999786 5.0000000000 
-7.3090000153 -2.3747999668 5.0000000000 
-8.2578001022 -2.6830999851 5.0000000000 
-9.2086000443 -2.9920001030 5.0000000000 
-6.2174000740 -4.5171999931 5.0000000000 
-5.4126000404 -3.9324998856 5.0000000000 
-7.0244998932 -5.1036000252 5.0000000000 
-7.8333001137 -5.6911997795 5.0000000000 
-4.5171999931 -6.2174000740 5.0000000000 
-3.9324998856 -5.4126000404 5.0000000000 
-5.1036000252 -7.0244998932 5.0000000000 
-5.6911997795 -7.8333001137 5.0000000000 
-2.3747999668 -7.3090000153 5.0000000000 
-2.0673999786 -6.3628997803 5.0000000000 
-2.6830999851 -8.2578001022 5.0000000000 
-2.9920001030 -9.2086000443 5.0000000000 
0.0000000000 -7.6852002144 5.0000000000 
0.0000000000 -6.6904001236 5.0000000000 
0.0000000000 -8.6828002930 5.0000000000 
0.0000000000 -9.6824998856 5.0000000000 
2.3747999668 -7.3090000153 5.0000000000 
2.0673999786 -6.3628997803 5.0000000000 
2.6830999851 -8.2578001022 5.0000000000 
2.9920001030 -9.2086000443 5.0000000000 
4.5171999931 -6.2174000740 5.0000000000 
3.9324998856 -5.4126000404 5.0000000000 
5.1036000252 -7.0244998932 5.0000000000 
5.6911997795 -7.8333001137 5.0000000000 
6.2174000740 -4.5171999931 5.0000000000 
5.4126000404 -3.9324998856 5.0000000000 
7.0244998932 -5.1036000252 5.0000000000 
7.8333001137 -5.6911997795 5.0000000000 
7.3090000153 -2.3747999668 5.0000000000 
6.3628997803 -2.0673999786 5.0000000000 
8.2578001022 -2.6830999851 5.0000000000 
9.2086000443 -2.9920001030 5.0000000000 
0.0000000000 0.0000000000 -17.0000000000 
1.1838999987 0.0000000000 -16.7551002502 
1.1259000301 0.3657999933 -16.7551002502 
0.9577999711 0.6958999634 -16.7551002502 
0.6958999634 0.9577999711 -16.7551002502 
0.3657999933 1.1259000301 -16.7551002502 
0.0000000000 1.1838999987 -16.7551002502 
-0.3657999933 1.1259000301 -16.7551002502 
-0.6958999634 0.9577999711 -16.7551002502 
-0.9577999711 0.6958999634 -16.7551002502 
-1.1259000301 0.3657999933 -16.7551002502 
-1.1838999987 0.0000000000 -16.7551002502 
-1.1259000301 -0.3657999933 -16.7551002502 
-0.9577999711 -0.6958999634 -16.7551002502 
-0.6958999634 -0.9577999711 -16.7551002502 
-0.3657999933 -1.1259000301 -16.7551002502 
0.0000000000 -1.1838999987 -16.7551002502 
0.3657999933 -1.1259000301 -16.7551002502 
0.6958999634 -0.9577999711 -16.7551002502 
0.9577999711 -0.6958999634 -16.7551002502 
1.1259000301 -0.3657999933 -16.7551002502 
2.3336000443 0.0000000000 -16.0275001526 
2.2193999290 0.7210999727 -16.0275001526 
1.8878999949 1.3717000484 -16.0275001526 
1.3717000484 1.8878999949 -16.0275001526 
0.7210999727 2.2193999290 -16.0275001526 
0.0000000000 2.3336000443 -16.0275001526 
-0.7210999727 2.2193999290 -16.0275001526 
-1.3717000484 1.8878999949 -16.0275001526 
-1.8878999949 1.3717000484 -16.0275001526 
-2.2193999290 0.7210999727 -16.0275001526 
-2.3336000443 0.0000000000 -16.0275001526 
-2.2193999290 -0.7210999727 -16.0275001526 
-1.8878999949 -1.3717000484 -16.0275001526 
-1.3717000484 -1.8878999949 -16.0275001526 
-0.7210999727 -2.2193999290 -16.0275001526 
0.0000000000 -2.3336000443 -16.0275001526 
0.7210999727 -2.2193999290 -16.0275001526 
1.3717000484 -1.8878999949 -16.0275001526 
1.8878999949 -1.3717000484 -16.0275001526 
2.2193999290 -0.7210999727 -16.0275001526 
3.4161000252 0.0000000000 -14.8381996155 
3.2488999367 1.0556000471 -14.8381996155 
2.7637000084 2.0078999996 -14.8381996155 
2.0078999996 2.7637000084 -14.8381996155 
1.0556000471 3.2488999367 -14.8381996155 
0.0000000000 3.4161000252 -14.8381996155 
-1.0556000471 3.2488999367 -14.8381996155 
-2.0078999996 2.7637000084 -14.8381996155 
-2.7637000084 2.0078999996 -14.8381996155 
-3.2488999367 1.0556000471 -14.8381996155 
-3.4161000252 0.0000000000 -14.8381996155 
-3.2488999367 -1.0556000471 -14.8381996155 
-2.7637000084 -2.0078999996 -14.8381996155 
-2.0078999996 -2.7637000084 -14.8381996155 
-1.0556000471 -3.2488999367 -14.8381996155 
0.0000000000 -3.4161000252 -14.8381996155 
1.0556000471 -3.2488999367 -14.8381996155 
2.0078999996 -2.7637000084 -14.8381996155 
2.7637000084 -2.0078999996 -14.8381996155 
3.2488999367 -1.0556000471 -14.8381996155 
4.4001998901 0.0000000000 -13.2213001251 
4.1848998070 1.3596999645 -13.2213001251 
3.5599000454 2.5864000320 -13.2213001251 
2.5864000320 3.5599000454 -13.2213001251 
1.3596999645 4.1848998070 -13.2213001251 
0.0000000000 4.4001998901 -13.2213001251 
-1.3596999645 4.1848998070 -13.2213001251 
-2.5864000320 3.5599000454 -13.2213001251 
-3.5599000454 2.5864000320 -13.2213001251 
-4.1848998070 1.3596999645 -13.2213001251 
-4.4001998901 0.0000000000 -13.2213001251 
-4.1848998070 -1.3596999645 -13.2213001251 
-3.5599000454 -2.5864000320 -13.2213001251 
-2.5864000320 -3.5599000454 -13.2213001251 
-1.3596999645 -4.1848998070 -13.2213001251 
0.0000000000 -4.4001998901 -13.2213001251 
1.3596999645 -4.1848998070 -13.2213001251 
2.5864000320 -3.5599000454 -13.2213001251 
3.5599000454 -2.5864000320 -13.2213001251 
4.1848998070 -1.3596999645 -13.2213001251 
5.2575998306 0.0000000000 -11.2236003876 
5.0001997948 1.6246999502 -11.2236003876 
4.2533998489 3.0903000832 -11.2236003876 
3.0903000832 4.2533998489 -11.2236003876 
1.6246999502 5.0001997948 -11.2236003876 
0.0000000000 5.2575998306 -11.2236003876 
-1.6246999502 5.0001997948 -11.2236003876 
-3.0903000832 4.2533998489 -11.2236003876 
-4.2533998489 3.0903000832 -11.2236003876 
-5.0001997948 1.6246999502 -11.2236003876 
-5.2575998306 0.0000000000 -11.2236003876 
-5.0001997948 -1.6246999502 -11.2236003876 
-4.2533998489 -3.0903000832 -11.2236003876 
-3.0903000832 -4.2533998489 -11.2236003876 
-1.6246999502 -5.0001997948 -11.2236003876 
0.0000000000 -5.2575998306 -11.2236003876 
1.6246999502 -5.0001997948 -11.2236003876 
3.0903000832 -4.2533998489 -11.2236003876 
4.2533998489 -3.0903000832 -11.2236003876 
5.0001997948 -1.6246999502 -11.2236003876 
5.9633998871 0.0000000000 -8.9025001526 
5.6715002060 1.8428000212 -8.9025001526 
4.8245000839 3.5051999092 -8.9025001526 
3.5051999092 4.8245000839 -8.9025001526 
1.8428000212 5.6715002060 -8.9025001526 
0.0000000000 5.9633998871 -8.9025001526 
-1.8428000212 5.6715002060 -8.9025001526 
-3.5051999092 4.8245000839 -8.9025001526 
-4.8245000839 3.5051999092 -8.9025001526 
-5.6715002060 1.8428000212 -8.9025001526 
-5.9633998871 0.0000000000 -8.9025001526 
-5.6715002060 -1.8428000212 -8.9025001526 
-4.8245000839 -3.5051999092 -8.9025001526 
-3.5051999092 -4.8245000839 -8.9025001526 
-1.8428000212 -5.6715002060 -8.9025001526 
0.0000000000 -5.9633998871 -8.9025001526 
1.8428000212 -5.6715002060 -8.9025001526 
3.5051999092 -4.8245000839 -8.9025001526 
4.8245000839 -3.5051999092 -8.9025001526 
5.6715002060 -1.8428000212 -8.9025001526 
6.4974999428 0.0000000000 -6.3249998093 
6.1795001030 2.0078001022 -6.3249998093 
5.2565999031 3.8190999031 -6.3249998093 
3.8190999031 5.2565999031 -6.3249998093 
2.0078001022 6.1795001030 -6.3249998093 
0.0000000000 6.4974999428 -6.3249998093 
-2.0078001022 6.1795001030 -6.3249998093 
-3.8190999031 5.2565999031 -6.3249998093 
-5.2565999031 3.8190999031 -6.3249998093 
-6.1795001030 2.0078001022 -6.3249998093 
-6.4974999428 0.0000000000 -6.3249998093 
-6.1795001030 -2.0078001022 -6.3249998093 
-5.2565999031 -3.8190999031 -6.3249998093 
-3.8190999031 -5.2565999031 -6.3249998093 
-2.0078001022 -6.1795001030 -6.3249998093 
0.0000000000 -6.4974999428 -6.3249998093 
2.0078001022 -6.1795001030 -6.3249998093 
3.8190999031 -5.2565999031 -6.3249998093 
5.2565999031 -3.8190999031 -6.3249998093 
6.1795001030 -2.0078001022 -6.3249998093 
6.8442997932 0.0000000000 -3.5652000904 
6.5093998909 2.1150000095 -3.5652000904 
5.5371999741 4.0229997635 -3.5652000904 
4.0229997635 5.5371999741 -3.5652000904 
2.1150000095 6.5093998909 -3.5652000904 
0.0000000000 6.8442997932 -3.5652000904 
-2.1150000095 6.5093998909 -3.5652000904 
-4.0229997635 5.5371999741 -3.5652000904 
-5.5371999741 4.0229997635 -3.5652000904 
-6.5093998909 2.1150000095 -3.5652000904 
-6.8442997932 0.0000000000 -3.5652000904 
-6.5093998909 -2.1150000095 -3.5652000904 
-5.5371999741 -4.0229997635 -3.5652000904 
-4.0229997635 -5.5371999741 -3.5652000904 
-2.1150000095 -6.5093998909 -3.5652000904 
0.0000000000 -6.8442997932 -3.5652000904 
2.1150000095 -6.5093998909 -3.5652000904 
4.0229997635 -5.5371999741 -3.5652000904 
5.5371999741 -4.0229997635 -3.5652000904 
6.5093998909 -2.1150000095 -3.5652000904 
6.9939999580 0.0000000000 -0.7026999593 
6.6517000198 2.1612999439 -0.7026999593 
5.6582999229 4.1110000610 -0.7026999593 
4.1110000610 5.6582999229 -0.7026999593 
2.1612999439 6.6517000198 -0.7026999593 
0.0000000000 6.9939999580 -0.7026999593 
-2.1612999439 6.6517000198 -0.7026999593 
-4.1110000610 5.6582999229 -0.7026999593 
-5.6582999229 4.1110000610 -0.7026999593 
-6.6517000198 2.1612999439 -0.7026999593 
-6.9939999580 0.0000000000 -0.7026999593 
-6.6517000198 -2.1612999439 -0.7026999593 
-5.6582999229 -4.1110000610 -0.7026999593 
-4.1110000610 -5.6582999229 -0.7026999593 
-2.1612999439 -6.6517000198 -0.7026999593 
0.0000000000 -6.9939999580 -0.7026999593 
2.1612999439 -6.6517000198 -0.7026999593 
4.1110000610 -5.6582999229 -0.7026999593 
5.6582999229 -4.1110000610 -0.7026999593 
6.6517000198 -2.1612999439 -0.7026999593 
6.9422001839 0.0000000000 2.1800999641 
6.6023998260 2.1452999115 2.1800999641 
5.6163997650 4.0805001259 2.1800999641 
4.0805001259 5.6163997650 2.1800999641 
2.1452999115 6.6023998260 2.1800999641 
0.0000000000 6.9422001839 2.1800999641 
-2.1452999115 6.6023998260 2.1800999641 
-4.0805001259 5.6163997650 2.1800999641 
-5.6163997650 4.0805001259 2.1800999641 
-6.6023998260 2.1452999115 2.1800999641 
-6.9422001839 0.0000000000 2.1800999641 
-6.6023998260 -2.1452999115 2.1800999641 
-5.6163997650 -4.0805001259 2.1800999641 
-4.0805001259 -5.6163997650 2.1800999641 
-2.1452999115 -6.6023998260 2.1800999641 
0.0000000000 -6.9422001839 2.1800999641 
2.1452999115 -6.6023998260 2.1800999641 
4.0805001259 -5.6163997650 2.1800999641 
5.6163997650 -4.0805001259 2.1800999641 
6.6023998260 -2.1452999115 2.1800999641 
1.6500999928 0.0000000000 -19.7257995605 
1.5693999529 0.5098999739 -19.7257995605 
0.0000000000 0.0000000000 -20.0000000000 
1.3350000381 0.9698999524 -19.7257995605 
0.9698999524 1.3350000381 -19.7257995605 
0.5098999739 1.5693999529 -19.7257995605 
0.0000000000 1.6500999928 -19.7257995605 
-0.5098999739 1.5693999529 -19.7257995605 
-0.9698999524 1.3350000381 -19.7257995605 
-1.3350000381 0.9698999524 -19.7257995605 
-1.5693999529 0.5098999739 -19.7257995605 
-1.6500999928 0.0000000000 -19.7257995605 
-1.5693999529 -0.5098999739 -19.7257995605 
-1.3350000381 -0.9698999524 -19.7257995605 
-0.9698999524 -1.3350000381 -19.7257995605 
-0.5098999739 -1.5693999529 -19.7257995605 
0.0000000000 -1.6500999928 -19.7257995605 
0.5098999739 -1.5693999529 -19.7257995605 
0.9698999524 -1.3350000381 -19.7257995605 
1.3350000381 -0.9698999524 -19.7257995605 
1.5693999529 -0.5098999739 -19.7257995605 
3.2550001144 0.0000000000 -18.9108009338 
3.0957000256 1.0059000254 -18.9108009338 
2.6333999634 1.9132000208 -18.9108009338 
1.9132000208 2.6333999634 -18.9108009338 
1.0059000254 3.0957000256 -18.9108009338 
0.0000000000 3.2550001144 -18.9108009338 
-1.0059000254 3.0957000256 -18.9108009338 
-1.9132000208 2.6333999634 -18.9108009338 
-2.6333999634 1.9132000208 -18.9108009338 
-3.0957000256 1.0059000254 -18.9108009338 
-3.2550001144 0.0000000000 -18.9108009338 
-3.0957000256 -1.0059000254 -18.9108009338 
-2.6333999634 -1.9132000208 -18.9108009338 
-1.9132000208 -2.6333999634 -18.9108009338 
-1.0059000254 -3.0957000256 -18.9108009338 
0.0000000000 -3.2550001144 -18.9108009338 
1.0059000254 -3.0957000256 -18.9108009338 
1.9132000208 -2.6333999634 -18.9108009338 
2.6333999634 -1.9132000208 -18.9108009338 
3.0957000256 -1.0059000254 -18.9108009338 
4.7705998421 0.0000000000 -17.5774002075 
4.5371999741 1.4742000103 -17.5774002075 
3.8594999313 2.8041000366 -17.5774002075 
2.8041000366 3.8594999313 -17.5774002075 
1.4742000103 4.5371999741 -17.5774002075 
0.0000000000 4.7705998421 -17.5774002075 
-1.4742000103 4.5371999741 -17.5774002075 
-2.8041000366 3.8594999313 -17.5774002075 
-3.8594999313 2.8041000366 -17.5774002075 
-4.5371999741 1.4742000103 -17.5774002075 
-4.7705998421 0.0000000000 -17.5774002075 
-4.5371999741 -1.4742000103 -17.5774002075 
-3.8594999313 -2.8041000366 -17.5774002075 
-2.8041000366 -3.8594999313 -17.5774002075 
-1.4742000103 -4.5371999741 -17.5774002075 
0.0000000000 -4.7705998421 -17.5774002075 
1.4742000103 -4.5371999741 -17.5774002075 
2.8041000366 -3.8594999313 -17.5774002075 
3.8594999313 -2.8041000366 -17.5774002075 
4.5371999741 -1.4742000103 -17.5774002075 
6.1554999352 0.0000000000 -15.7620000839 
5.8541998863 1.9021999836 -15.7620000839 
4.9798998833 3.6180999279 -15.7620000839 
3.6180999279 4.9798998833 -15.7620000839 
1.9021999836 5.8541998863 -15.7620000839 
0.0000000000 6.1554999352 -15.7620000839 
-1.9021999836 5.8541998863 -15.7620000839 
-3.6180999279 4.9798998833 -15.7620000839 
-4.9798998833 3.6180999279 -15.7620000839 
-5.8541998863 1.9021999836 -15.7620000839 
-6.1554999352 0.0000000000 -15.7620000839 
-5.8541998863 -1.9021999836 -15.7620000839 
-4.9798998833 -3.6180999279 -15.7620000839 
-3.6180999279 -4.9798998833 -15.7620000839 
-1.9021999836 -5.8541998863 -15.7620000839 
0.0000000000 -6.1554999352 -15.7620000839 
1.9021999836 -5.8541998863 -15.7620000839 
3.6180999279 -4.9798998833 -15.7620000839 
4.9798998833 -3.6180999279 -15.7620000839 
5.8541998863 -1.9021999836 -15.7620000839 
7.3716001511 0.0000000000 -13.5143995285 
7.0107998848 2.2778999805 -13.5143995285 
5.9636998177 4.3329000473 -13.5143995285 
4.3329000473 5.9636998177 -13.5143995285 
2.2778999805 7.0107998848 -13.5143995285 
0.0000000000 7.3716001511 -13.5143995285 
-2.2778999805 7.0107998848 -13.5143995285 
-4.3329000473 5.9636998177 -13.5143995285 
-5.9636998177 4.3329000473 -13.5143995285 
-7.0107998848 2.2778999805 -13.5143995285 
-7.3716001511 0.0000000000 -13.5143995285 
-7.0107998848 -2.2778999805 -13.5143995285 
-5.9636998177 -4.3329000473 -13.5143995285 
-4.3329000473 -5.9636998177 -13.5143995285 
-2.2778999805 -7.0107998848 -13.5143995285 
0.0000000000 -7.3716001511 -13.5143995285 
2.2778999805 -7.0107998848 -13.5143995285 
4.3329000473 -5.9636998177 -13.5143995285 
5.9636998177 -4.3329000473 -13.5143995285 
7.0107998848 -2.2778999805 -13.5143995285 
8.3854999542 0.0000000000 -10.8964004517 
7.9751000404 2.5913000107 -10.8964004517 
6.7839999199 4.9288997650 -10.8964004517 
4.9288997650 6.7839999199 -10.8964004517 
2.5913000107 7.9751000404 -10.8964004517 
0.0000000000 8.3854999542 -10.8964004517 
-2.5913000107 7.9751000404 -10.8964004517 
-4.9288997650 6.7839999199 -10.8964004517 
-6.7839999199 4.9288997650 -10.8964004517 
-7.9751000404 2.5913000107 -10.8964004517 
-8.3854999542 0.0000000000 -10.8964004517 
-7.9751000404 -2.5913000107 -10.8964004517 
-6.7839999199 -4.9288997650 -10.8964004517 
-4.9288997650 -6.7839999199 -10.8964004517 
-2.5913000107 -7.9751000404 -10.8964004517 
0.0000000000 -8.3854999542 -10.8964004517 
2.5913000107 -7.9751000404 -10.8964004517 
4.9288997650 -6.7839999199 -10.8964004517 
6.7839999199 -4.9288997650 -10.8964004517 
7.9751000404 -2.5913000107 -10.8964004517 
9.1695995331 0.0000000000 -7.9795999527 
8.7208003998 2.8336000443 -7.9795999527 
7.4183998108 5.3898000717 -7.9795999527 
5.3898000717 7.4183998108 -7.9795999527 
2.8336000443 8.7208003998 -7.9795999527 
0.0000000000 9.1695995331 -7.9795999527 
-2.8336000443 8.7208003998 -7.9795999527 
-5.3898000717 7.4183998108 -7.9795999527 
-7.4183998108 5.3898000717 -7.9795999527 
-8.7208003998 2.8336000443 -7.9795999527 
-9.1695995331 0.0000000000 -7.9795999527 
-8.7208003998 -2.8336000443 -7.9795999527 
-7.4183998108 -5.3898000717 -7.9795999527 
-5.3898000717 -7.4183998108 -7.9795999527 
-2.8336000443 -8.7208003998 -7.9795999527 
0.0000000000 -9.1695995331 -7.9795999527 
2.8336000443 -8.7208003998 -7.9795999527 
5.3898000717 -7.4183998108 -7.9795999527 
7.4183998108 -5.3898000717 -7.9795999527 
8.7208003998 -2.8336000443 -7.9795999527 
9.7023000717 0.0000000000 -4.8439998627 
9.2273998260 2.9981999397 -4.8439998627 
7.8492999077 5.7027997971 -4.8439998627 
5.7027997971 7.8492999077 -4.8439998627 
2.9981999397 9.2273998260 -4.8439998627 
0.0000000000 9.7023000717 -4.8439998627 
-2.9981999397 9.2273998260 -4.8439998627 
-5.7027997971 7.8492999077 -4.8439998627 
-7.8492999077 5.7027997971 -4.8439998627 
-9.2273998260 2.9981999397 -4.8439998627 
-9.7023000717 0.0000000000 -4.8439998627 
-9.2273998260 -2.9981999397 -4.8439998627 
-7.8492999077 -5.7027997971 -4.8439998627 
-5.7027997971 -7.8492999077 -4.8439998627 
-2.9981999397 -9.2273998260 -4.8439998627 
0.0000000000 -9.7023000717 -4.8439998627 
2.9981999397 -9.2273998260 -4.8439998627 
5.7027997971 -7.8492999077 -4.8439998627 
7.8492999077 -5.7027997971 -4.8439998627 
9.2273998260 -2.9981999397 -4.8439998627 
9.9688997269 0.0000000000 -1.5756000280 
9.4809999466 3.0806000233 -1.5756000280 
8.0649995804 5.8596000671 -1.5756000280 
5.8596000671 8.0649995804 -1.5756000280 
3.0806000233 9.4809999466 -1.5756000280 
0.0000000000 9.9688997269 -1.5756000280 
-3.0806000233 9.4809999466 -1.5756000280 
-5.8596000671 8.0649995804 -1.5756000280 
-8.0649995804 5.8596000671 -1.5756000280 
-9.4809999466 3.0806000233 -1.5756000280 
-9.9688997269 0.0000000000 -1.5756000280 
-9.4809999466 -3.0806000233 -1.5756000280 
-8.0649995804 -5.8596000671 -1.5756000280 
-5.8596000671 -8.0649995804 -1.5756000280 
-3.0806000233 -9.4809999466 -1.5756000280 
0.0000000000 -9.9688997269 -1.5756000280 
3.0806000233 -9.4809999466 -1.5756000280 
5.8596000671 -8.0649995804 -1.5756000280 
8.0649995804 -5.8596000671 -1.5756000280 
9.4809999466 -3.0806000233 -1.5756000280 
9.9623003006 0.0000000000 1.7359999418 
9.4746999741 3.0785000324 1.7359999418 
8.0595998764 5.8557000160 1.7359999418 
5.8557000160 8.0595998764 1.7359999418 
3.0785000324 9.4746999741 1.7359999418 
0.0000000000 9.9623003006 1.7359999418 
-3.0785000324 9.4746999741 1.7359999418 
-5.8557000160 8.0595998764 1.7359999418 
-8.0595998764 5.8557000160 1.7359999418 
-9.4746999741 3.0785000324 1.7359999418 
-9.9623003006 0.0000000000 1.7359999418 
-9.4746999741 -3.0785000324 1.7359999418 
-8.0595998764 -5.8557000160 1.7359999418 
-5.8557000160 -8.0595998764 1.7359999418 
-3.0785000324 -9.4746999741 1.7359999418 
0.0000000000 -9.9623003006 1.7359999418 
3.0785000324 -9.4746999741 1.7359999418 
5.8557000160 -8.0595998764 1.7359999418 
8.0595998764 -5.8557000160 1.7359999418 
9.4746999741 -3.0785000324 1.7359999418 
1.2750999928 0.4142999947 -17.7453994751 
1.3408000469 0.0000000000 -17.7453994751 
0.0000000000 0.0000000000 -18.0000000000 
1.4960999489 0.0000000000 -18.7355995178 
1.4228999615 0.4623000026 -18.7355995178 
0.0000000000 0.0000000000 -19.0000000000 
1.0846999884 0.7881000042 -17.7453994751 
1.2103999853 0.8794000149 -18.7355995178 
0.7881000042 1.0846999884 -17.7453994751 
0.8794000149 1.2103999853 -18.7355995178 
0.4142999947 1.2750999928 -17.7453994751 
0.4623000026 1.4228999615 -18.7355995178 
0.0000000000 1.3408000469 -17.7453994751 
0.0000000000 1.4960999489 -18.7355995178 
-0.4142999947 1.2750999928 -17.7453994751 
-0.4623000026 1.4228999615 -18.7355995178 
-0.7881000042 1.0846999884 -17.7453994751 
-0.8794000149 1.2103999853 -18.7355995178 
-1.0846999884 0.7881000042 -17.7453994751 
-1.2103999853 0.8794000149 -18.7355995178 
-1.2750999928 0.4142999947 -17.7453994751 
-1.4228999615 0.4623000026 -18.7355995178 
-1.3408000469 0.0000000000 -17.7453994751 
-1.4960999489 0.0000000000 -18.7355995178 
-1.2750999928 -0.4142999947 -17.7453994751 
-1.4228999615 -0.4623000026 -18.7355995178 
-1.0846999884 -0.7881000042 -17.7453994751 
-1.2103999853 -0.8794000149 -18.7355995178 
-0.7881000042 -1.0846999884 -17.7453994751 
-0.8794000149 -1.2103999853 -18.7355995178 
-0.4142999947 -1.2750999928 -17.7453994751 
-0.4623000026 -1.4228999615 -18.7355995178 
0.0000000000 -1.3408000469 -17.7453994751 
0.0000000000 -1.4960999489 -18.7355995178 
0.4142999947 -1.2750999928 -17.7453994751 
0.4623000026 -1.4228999615 -18.7355995178 
0.7881000042 -1.0846999884 -17.7453994751 
0.8794000149 -1.2103999853 -18.7355995178 
1.0846999884 -0.7881000042 -17.7453994751 
1.2103999853 -0.8794000149 -18.7355995178 
1.2750999928 -0.4142999947 -17.7453994751 
1.4228999615 -0.4623000026 -18.7355995178 
2.5141999722 0.8169000149 -16.9888000488 
2.6435999870 0.0000000000 -16.9888000488 
2.9505999088 0.0000000000 -17.9498996735 
2.8062000275 0.9118000269 -17.9498996735 
2.1387000084 1.5539000034 -16.9888000488 
2.3870999813 1.7343000174 -17.9498996735 
1.5539000034 2.1387000084 -16.9888000488 
1.7343000174 2.3870999813 -17.9498996735 
0.8169000149 2.5141999722 -16.9888000488 
0.9118000269 2.8062000275 -17.9498996735 
0.0000000000 2.6435999870 -16.9888000488 
0.0000000000 2.9505999088 -17.9498996735 
-0.8169000149 2.5141999722 -16.9888000488 
-0.9118000269 2.8062000275 -17.9498996735 
-1.5539000034 2.1387000084 -16.9888000488 
-1.7343000174 2.3870999813 -17.9498996735 
-2.1387000084 1.5539000034 -16.9888000488 
-2.3870999813 1.7343000174 -17.9498996735 
-2.5141999722 0.8169000149 -16.9888000488 
-2.8062000275 0.9118000269 -17.9498996735 
-2.6435999870 0.0000000000 -16.9888000488 
-2.9505999088 0.0000000000 -17.9498996735 
-2.5141999722 -0.8169000149 -16.9888000488 
-2.8062000275 -0.9118000269 -17.9498996735 
-2.1387000084 -1.5539000034 -16.9888000488 
-2.3870999813 -1.7343000174 -17.9498996735 
-1.5539000034 -2.1387000084 -16.9888000488 
-1.7343000174 -2.3870999813 -17.9498996735 
-0.8169000149 -2.5141999722 -16.9888000488 
-0.9118000269 -2.8062000275 -17.9498996735 
0.0000000000 -2.6435999870 -16.9888000488 
0.0000000000 -2.9505999088 -17.9498996735 
0.8169000149 -2.5141999722 -16.9888000488 
0.9118000269 -2.8062000275 -17.9498996735 
1.5539000034 -2.1387000084 -16.9888000488 
1.7343000174 -2.3870999813 -17.9498996735 
2.1387000084 -1.5539000034 -16.9888000488 
2.3870999813 -1.7343000174 -17.9498996735 
2.5141999722 -0.8169000149 -16.9888000488 
2.8062000275 -0.9118000269 -17.9498996735 
3.6821000576 1.1964000463 -15.7517004013 
3.8715999126 0.0000000000 -15.7517004013 
4.3228998184 0.0000000000 -16.6646995544 
4.1112999916 1.3358999491 -16.6646995544 
3.1322000027 2.2757000923 -15.7517004013 
3.4972999096 2.5408999920 -16.6646995544 
2.2757000923 3.1322000027 -15.7517004013 
2.5408999920 3.4972999096 -16.6646995544 
1.1964000463 3.6821000576 -15.7517004013 
1.3358999491 4.1112999916 -16.6646995544 
0.0000000000 3.8715999126 -15.7517004013 
0.0000000000 4.3228998184 -16.6646995544 
-1.1964000463 3.6821000576 -15.7517004013 
-1.3358999491 4.1112999916 -16.6646995544 
-2.2757000923 3.1322000027 -15.7517004013 
-2.5408999920 3.4972999096 -16.6646995544 
-3.1322000027 2.2757000923 -15.7517004013 
-3.4972999096 2.5408999920 -16.6646995544 
-3.6821000576 1.1964000463 -15.7517004013 
-4.1112999916 1.3358999491 -16.6646995544 
-3.8715999126 0.0000000000 -15.7517004013 
-4.3228998184 0.0000000000 -16.6646995544 
-3.6821000576 -1.1964000463 -15.7517004013 
-4.1112999916 -1.3358999491 -16.6646995544 
-3.1322000027 -2.2757000923 -15.7517004013 
-3.4972999096 -2.5408999920 -16.6646995544 
-2.2757000923 -3.1322000027 -15.7517004013 
-2.5408999920 -3.4972999096 -16.6646995544 
-1.1964000463 -3.6821000576 -15.7517004013 
-1.3358999491 -4.1112999916 -16.6646995544 
0.0000000000 -3.8715999126 -15.7517004013 
0.0000000000 -4.3228998184 -16.6646995544 
1.1964000463 -3.6821000576 -15.7517004013 
1.3358999491 -4.1112999916 -16.6646995544 
2.2757000923 -3.1322000027 -15.7517004013 
2.5408999920 -3.4972999096 -16.6646995544 
3.1322000027 -2.2757000923 -15.7517004013 
3.4972999096 -2.5408999920 -16.6646995544 
3.6821000576 -1.1964000463 -15.7517004013 
4.1112999916 -1.3358999491 -16.6646995544 
4.9900999069 0.0000000000 -14.0690002441 
4.7459001541 1.5420000553 -14.0690002441 
5.5749998093 0.0000000000 -14.9158000946 
5.3021001816 1.7228000164 -14.9158000946 
4.0370998383 2.9330999851 -14.0690002441 
4.5103001595 3.2769000530 -14.9158000946 
2.9330999851 4.0370998383 -14.0690002441 
3.2769000530 4.5103001595 -14.9158000946 
1.5420000553 4.7459001541 -14.0690002441 
1.7228000164 5.3021001816 -14.9158000946 
0.0000000000 4.9900999069 -14.0690002441 
0.0000000000 5.5749998093 -14.9158000946 
-1.5420000553 4.7459001541 -14.0690002441 
-1.7228000164 5.3021001816 -14.9158000946 
-2.9330999851 4.0370998383 -14.0690002441 
-3.2769000530 4.5103001595 -14.9158000946 
-4.0370998383 2.9330999851 -14.0690002441 
-4.5103001595 3.2769000530 -14.9158000946 
-4.7459001541 1.5420000553 -14.0690002441 
-5.3021001816 1.7228000164 -14.9158000946 
-4.9900999069 0.0000000000 -14.0690002441 
-5.5749998093 0.0000000000 -14.9158000946 
-4.7459001541 -1.5420000553 -14.0690002441 
-5.3021001816 -1.7228000164 -14.9158000946 
-4.0370998383 -2.9330999851 -14.0690002441 
-4.5103001595 -3.2769000530 -14.9158000946 
-2.9330999851 -4.0370998383 -14.0690002441 
-3.2769000530 -4.5103001595 -14.9158000946 
-1.5420000553 -4.7459001541 -14.0690002441 
-1.7228000164 -5.3021001816 -14.9158000946 
0.0000000000 -4.9900999069 -14.0690002441 
0.0000000000 -5.5749998093 -14.9158000946 
1.5420000553 -4.7459001541 -14.0690002441 
1.7228000164 -5.3021001816 -14.9158000946 
2.9330999851 -4.0370998383 -14.0690002441 
3.2769000530 -4.5103001595 -14.9158000946 
4.0370998383 -2.9330999851 -14.0690002441 
4.5103001595 -3.2769000530 -14.9158000946 
4.7459001541 -1.5420000553 -14.0690002441 
5.3021001816 -1.7228000164 -14.9158000946 
5.9675002098 0.0000000000 -11.9883003235 
5.6753997803 1.8440999985 -11.9883003235 
6.6718997955 0.0000000000 -12.7517995834 
6.3453998566 2.0617001057 -12.7517995834 
4.8277997971 3.5076000690 -11.9883003235 
5.3976998329 3.9217000008 -12.7517995834 
3.5076000690 4.8277997971 -11.9883003235 
3.9217000008 5.3976998329 -12.7517995834 
1.8440999985 5.6753997803 -11.9883003235 
2.0617001057 6.3453998566 -12.7517995834 
0.0000000000 5.9675002098 -11.9883003235 
0.0000000000 6.6718997955 -12.7517995834 
-1.8440999985 5.6753997803 -11.9883003235 
-2.0617001057 6.3453998566 -12.7517995834 
-3.5076000690 4.8277997971 -11.9883003235 
-3.9217000008 5.3976998329 -12.7517995834 
-4.8277997971 3.5076000690 -11.9883003235 
-5.3976998329 3.9217000008 -12.7517995834 
-5.6753997803 1.8440999985 -11.9883003235 
-6.3453998566 2.0617001057 -12.7517995834 
-5.9675002098 0.0000000000 -11.9883003235 
-6.6718997955 0.0000000000 -12.7517995834 
-5.6753997803 -1.8440999985 -11.9883003235 
-6.3453998566 -2.0617001057 -12.7517995834 
-4.8277997971 -3.5076000690 -11.9883003235 
-5.3976998329 -3.9217000008 -12.7517995834 
-3.5076000690 -4.8277997971 -11.9883003235 
-3.9217000008 -5.3976998329 -12.7517995834 
-1.8440999985 -5.6753997803 -11.9883003235 
-2.0617001057 -6.3453998566 -12.7517995834 
0.0000000000 -5.9675002098 -11.9883003235 
0.0000000000 -6.6718997955 -12.7517995834 
1.8440999985 -5.6753997803 -11.9883003235 
2.0617001057 -6.3453998566 -12.7517995834 
3.5076000690 -4.8277997971 -11.9883003235 
3.9217000008 -5.3976998329 -12.7517995834 
4.8277997971 -3.5076000690 -11.9883003235 
5.3976998329 -3.9217000008 -12.7517995834 
5.6753997803 -1.8440999985 -11.9883003235 
6.3453998566 -2.0617001057 -12.7517995834 
6.7761001587 0.0000000000 -9.5684003830 
6.4443998337 2.0938999653 -9.5684003830 
7.5831999779 0.0000000000 -10.2329998016 
7.2119998932 2.3433001041 -10.2329998016 
5.4819998741 3.9828999043 -9.5684003830 
6.1349000931 4.4573001862 -10.2329998016 
3.9828999043 5.4819998741 -9.5684003830 
4.4573001862 6.1349000931 -10.2329998016 
2.0938999653 6.4443998337 -9.5684003830 
2.3433001041 7.2119998932 -10.2329998016 
0.0000000000 6.7761001587 -9.5684003830 
0.0000000000 7.5831999779 -10.2329998016 
-2.0938999653 6.4443998337 -9.5684003830 
-2.3433001041 7.2119998932 -10.2329998016 
-3.9828999043 5.4819998741 -9.5684003830 
-4.4573001862 6.1349000931 -10.2329998016 
-5.4819998741 3.9828999043 -9.5684003830 
-6.1349000931 4.4573001862 -10.2329998016 
-6.4443998337 2.0938999653 -9.5684003830 
-7.2119998932 2.3433001041 -10.2329998016 
-6.7761001587 0.0000000000 -9.5684003830 
-7.5831999779 0.0000000000 -10.2329998016 
-6.4443998337 -2.0938999653 -9.5684003830 
-7.2119998932 -2.3433001041 -10.2329998016 
-5.4819998741 -3.9828999043 -9.5684003830 
-6.1349000931 -4.4573001862 -10.2329998016 
-3.9828999043 -5.4819998741 -9.5684003830 
-4.4573001862 -6.1349000931 -10.2329998016 
-2.0938999653 -6.4443998337 -9.5684003830 
-2.3433001041 -7.2119998932 -10.2329998016 
0.0000000000 -6.7761001587 -9.5684003830 
0.0000000000 -7.5831999779 -10.2329998016 
2.0938999653 -6.4443998337 -9.5684003830 
2.3433001041 -7.2119998932 -10.2329998016 
3.9828999043 -5.4819998741 -9.5684003830 
4.4573001862 -6.1349000931 -10.2329998016 
5.4819998741 -3.9828999043 -9.5684003830 
6.1349000931 -4.4573001862 -10.2329998016 
6.4443998337 -2.0938999653 -9.5684003830 
7.2119998932 -2.3433001041 -10.2329998016 
7.3928999901 0.0000000000 -6.8779001236 
7.0310997963 2.2844998837 -6.8779001236 
8.2833995819 0.0000000000 -7.4293999672 
7.8779997826 2.5597000122 -7.4293999672 
5.9809999466 4.3454999924 -6.8779001236 
6.7013998032 4.8688998222 -7.4293999672 
4.3454999924 5.9809999466 -6.8779001236 
4.8688998222 6.7013998032 -7.4293999672 
2.2844998837 7.0310997963 -6.8779001236 
2.5597000122 7.8779997826 -7.4293999672 
0.0000000000 7.3928999901 -6.8779001236 
0.0000000000 8.2833995819 -7.4293999672 
-2.2844998837 7.0310997963 -6.8779001236 
-2.5597000122 7.8779997826 -7.4293999672 
-4.3454999924 5.9809999466 -6.8779001236 
-4.8688998222 6.7013998032 -7.4293999672 
-5.9809999466 4.3454999924 -6.8779001236 
-6.7013998032 4.8688998222 -7.4293999672 
-7.0310997963 2.2844998837 -6.8779001236 
-7.8779997826 2.5597000122 -7.4293999672 
-7.3928999901 0.0000000000 -6.8779001236 
-8.2833995819 0.0000000000 -7.4293999672 
-7.0310997963 -2.2844998837 -6.8779001236 
-7.8779997826 -2.5597000122 -7.4293999672 
-5.9809999466 -4.3454999924 -6.8779001236 
-6.7013998032 -4.8688998222 -7.4293999672 
-4.3454999924 -5.9809999466 -6.8779001236 
-4.8688998222 -6.7013998032 -7.4293999672 
-2.2844998837 -7.0310997963 -6.8779001236 
-2.5597000122 -7.8779997826 -7.4293999672 
0.0000000000 -7.3928999901 -6.8779001236 
0.0000000000 -8.2833995819 -7.4293999672 
2.2844998837 -7.0310997963 -6.8779001236 
2.5597000122 -7.8779997826 -7.4293999672 
4.3454999924 -5.9809999466 -6.8779001236 
4.8688998222 -6.7013998032 -7.4293999672 
5.9809999466 -4.3454999924 -6.8779001236 
6.7013998032 -4.8688998222 -7.4293999672 
7.0310997963 -2.2844998837 -6.8779001236 
7.8779997826 -2.5597000122 -7.4293999672 
7.8007001877 0.0000000000 -3.9928998947 
7.4189000130 2.4105000496 -3.9928998947 
8.7531995773 0.0000000000 -4.4190001488 
8.3247995377 2.7049000263 -4.4190001488 
6.3109002113 4.5851001740 -3.9928998947 
7.0815000534 5.1449999809 -4.4190001488 
4.5851001740 6.3109002113 -3.9928998947 
5.1449999809 7.0815000534 -4.4190001488 
2.4105000496 7.4189000130 -3.9928998947 
2.7049000263 8.3247995377 -4.4190001488 
0.0000000000 7.8007001877 -3.9928998947 
0.0000000000 8.7531995773 -4.4190001488 
-2.4105000496 7.4189000130 -3.9928998947 
-2.7049000263 8.3247995377 -4.4190001488 
-4.5851001740 6.3109002113 -3.9928998947 
-5.1449999809 7.0815000534 -4.4190001488 
-6.3109002113 4.5851001740 -3.9928998947 
-7.0815000534 5.1449999809 -4.4190001488 
-7.4189000130 2.4105000496 -3.9928998947 
-8.3247995377 2.7049000263 -4.4190001488 
-7.8007001877 0.0000000000 -3.9928998947 
-8.7531995773 0.0000000000 -4.4190001488 
-7.4189000130 -2.4105000496 -3.9928998947 
-8.3247995377 -2.7049000263 -4.4190001488 
-6.3109002113 -4.5851001740 -3.9928998947 
-7.0815000534 -5.1449999809 -4.4190001488 
-4.5851001740 -6.3109002113 -3.9928998947 
-5.1449999809 -7.0815000534 -4.4190001488 
-2.4105000496 -7.4189000130 -3.9928998947 
-2.7049000263 -8.3247995377 -4.4190001488 
0.0000000000 -7.8007001877 -3.9928998947 
0.0000000000 -8.7531995773 -4.4190001488 
2.4105000496 -7.4189000130 -3.9928998947 
2.7049000263 -8.3247995377 -4.4190001488 
4.5851001740 -6.3109002113 -3.9928998947 
5.1449999809 -7.0815000534 -4.4190001488 
6.3109002113 -4.5851001740 -3.9928998947 
7.0815000534 -5.1449999809 -4.4190001488 
7.4189000130 -2.4105000496 -3.9928998947 
8.3247995377 -2.7049000263 -4.4190001488 
7.9878001213 0.0000000000 -0.9947999716 
7.5967998505 2.4684000015 -0.9947999716 
8.9793996811 0.0000000000 -1.2856999636 
8.5398998260 2.7748000622 -1.2856999636 
6.4622001648 4.6950998306 -0.9947999716 
7.2645001411 5.2779002190 -1.2856999636 
4.6950998306 6.4622001648 -0.9947999716 
5.2779002190 7.2645001411 -1.2856999636 
2.4684000015 7.5967998505 -0.9947999716 
2.7748000622 8.5398998260 -1.2856999636 
0.0000000000 7.9878001213 -0.9947999716 
0.0000000000 8.9793996811 -1.2856999636 
-2.4684000015 7.5967998505 -0.9947999716 
-2.7748000622 8.5398998260 -1.2856999636 
-4.6950998306 6.4622001648 -0.9947999716 
-5.2779002190 7.2645001411 -1.2856999636 
-6.4622001648 4.6950998306 -0.9947999716 
-7.2645001411 5.2779002190 -1.2856999636 
-7.5967998505 2.4684000015 -0.9947999716 
-8.5398998260 2.7748000622 -1.2856999636 
-7.9878001213 0.0000000000 -0.9947999716 
-8.9793996811 0.0000000000 -1.2856999636 
-7.5967998505 -2.4684000015 -0.9947999716 
-8.5398998260 -2.7748000622 -1.2856999636 
-6.4622001648 -4.6950998306 -0.9947999716 
-7.2645001411 -5.2779002190 -1.2856999636 
-4.6950998306 -6.4622001648 -0.9947999716 
-5.2779002190 -7.2645001411 -1.2856999636 
-2.4684000015 -7.5967998505 -0.9947999716 
-2.7748000622 -8.5398998260 -1.2856999636 
0.0000000000 -7.9878001213 -0.9947999716 
0.0000000000 -8.9793996811 -1.2856999636 
2.4684000015 -7.5967998505 -0.9947999716 
2.7748000622 -8.5398998260 -1.2856999636 
4.6950998306 -6.4622001648 -0.9947999716 
5.2779002190 -7.2645001411 -1.2856999636 
6.4622001648 -4.6950998306 -0.9947999716 
7.2645001411 -5.2779002190 -1.2856999636 
7.5967998505 -2.4684000015 -0.9947999716 
8.5398998260 -2.7748000622 -1.2856999636 
7.9489002228 0.0000000000 2.0313000679 
7.5598001480 2.4563000202 2.0313000679 
8.9556999207 0.0000000000 1.8832999468 
8.5173997879 2.7674999237 1.8832999468 
6.4307999611 4.6722002029 2.0313000679 
7.2452998161 5.2639999390 1.8832999468 
4.6722002029 6.4307999611 2.0313000679 
5.2639999390 7.2452998161 1.8832999468 
2.4563000202 7.5598001480 2.0313000679 
2.7674999237 8.5173997879 1.8832999468 
0.0000000000 7.9489002228 2.0313000679 
0.0000000000 8.9556999207 1.8832999468 
-2.4563000202 7.5598001480 2.0313000679 
-2.7674999237 8.5173997879 1.8832999468 
-4.6722002029 6.4307999611 2.0313000679 
-5.2639999390 7.2452998161 1.8832999468 
-6.4307999611 4.6722002029 2.0313000679 
-7.2452998161 5.2639999390 1.8832999468 
-7.5598001480 2.4563000202 2.0313000679 
-8.5173997879 2.7674999237 1.8832999468 
-7.9489002228 0.0000000000 2.0313000679 
-8.9556999207 0.0000000000 1.8832999468 
-7.5598001480 -2.4563000202 2.0313000679 
-8.5173997879 -2.7674999237 1.8832999468 
-6.4307999611 -4.6722002029 2.0313000679 
-7.2452998161 -5.2639999390 1.8832999468 
-4.6722002029 -6.4307999611 2.0313000679 
-5.2639999390 -7.2452998161 1.8832999468 
-2.4563000202 -7.5598001480 2.0313000679 
-2.7674999237 -8.5173997879 1.8832999468 
0.0000000000 -7.9489002228 2.0313000679 
0.0000000000 -8.9556999207 1.8832999468 
2.4563000202 -7.5598001480 2.0313000679 
2.7674999237 -8.5173997879 1.8832999468 
4.6722002029 -6.4307999611 2.0313000679 
5.2639999390 -7.2452998161 1.8832999468 
6.4307999611 -4.6722002029 2.0313000679 
7.2452998161 -5.2639999390 1.8832999468 
7.5598001480 -2.4563000202 2.0313000679 
8.5173997879 -2.7674999237 1.8832999468 
